# .PCD v0.7 - Point Cloud Data file format
VERSION 0.7
FIELDS x y z rgb
SIZE 4 4 4 4
TYPE F F F U
COUNT 1 1 1 1
WIDTH 280
HEIGHT 1
VIEWPOINT 0 0 0 1 0 0 0
POINTS 280
DATA ascii
0.07962849 -0.069317244 1.397095 4284783360
0.087035671 0.00014087383 1.40096 4283151360
0.094425082 0.069576867 1.4048468 4283151360
0.10182293 0.13896352 1.4088658 4284783360
0.048556373 -0.030979883 1.4007134 4283151360
0.055948623 0.038472988 1.4046016 4283151360
0.063346989 0.10787286 1.4085984 4283151360
0.070750721 0.17726019 1.4126824 4284783360
0.01013338 -0.062090158 1.4005871 4283151360
0.017537704 0.0073662987 1.40448 4283151360
0.024939362 0.076786727 1.4083632 4283151360
0.03233451 0.14618289 1.4124247 4283151360
-0.020923926 -0.023787403 1.4044029 4283151360
-0.013524962 0.045661334 1.4082904 4283151360
-0.0061361436 0.11504755 1.4122605 4283151360
0.0012594752 0.18445233 1.4163228 4284783360
-0.059357572 -0.054916274 1.4043479 4283151360
-0.051952824 0.014537293 1.4082476 4283151360
-0.044539444 0.083955504 1.4121349 4283151360
-0.037163466 0.15335478 1.4161806 4284783360
-0.050519589 -0.06799636 1.3994886 4279887360
-0.043110326 0.0014507977 1.4033688 4279887360
-0.035696734 0.070880905 1.407322 4279887360
-0.028292622 0.14027445 1.4113412 4279887360
-0.081576675 -0.029665086 1.4031807 4279887360
-0.074181892 0.039787222 1.4071054 4279887360
-0.066772386 0.10917751 1.4110789 4279887360
-0.059352234 0.17857434 1.4151506 4281519360
-0.11998647 -0.060760867 1.403016 4279887360
-0.11259001 0.0086818654 1.4069743 4279887360
-0.10518165 0.07810571 1.4109008 4279887360
-0.097775362 0.14749184 1.4149989 4281519360
-0.15104116 -0.022460783 1.4068916 4279887360
-0.14364396 0.046976127 1.4108279 4279887360
-0.13624078 0.11635975 1.4148093 4279887360
-0.12883058 0.18575953 1.4188884 4281519360
-0.1894571 -0.053576991 1.406876 4281519360
-0.18205433 0.015857697 1.410779 4281519360
-0.17464522 0.085276097 1.4147679 4281519360
-0.16724174 0.15465792 1.4187464 4281519360
-0.052181315 -0.22959673 1.3989122 4284783360
-0.04479377 -0.16011444 1.4024258 4281519360
-0.037403677 -0.090695977 1.4061574 4281519360
-0.030008759 -0.021289982 1.4098555 4281519360
-0.083243757 -0.19124757 1.402441 4283151360
-0.075868338 -0.12178885 1.4060009 4281519360
-0.068486817 -0.052387975 1.4096848 4279887360
-0.061087716 0.017027287 1.413492 4281519360
-0.12165998 -0.22237459 1.4025407 4284783360
-0.11426558 -0.15288135 1.4060121 4281519360
-0.10687889 -0.083461389 1.4096336 4279887360
-0.09949483 -0.014060743 1.4133916 4279887360
-0.15271974 -0.18404517 1.4061373 4283151360
-0.14532886 -0.11458863 1.4096726 4281519360
-0.13795194 -0.045193952 1.4133502 4279887360
-0.13056827 0.024218647 1.4171407 4281519360
-0.19116029 -0.21519949 1.4063271 4286415360
-0.1837505 -0.14571474 1.4098448 4283151360
-0.17634393 -0.076277934 1.4134171 4281519360
-0.16896462 -0.0068757641 1.4170954 4279887360
-0.055394694 -0.19306003 1.2407392 4281519360
-0.048012152 -0.12358894 1.2443696 4281519360
-0.040620122 -0.054152016 1.2480959 4281519360
-0.033228349 0.015267618 1.2518814 4283151360
-0.08647269 -0.15471976 1.2443523 4281519360
-0.079096459 -0.085253499 1.2479836 4281519360
-0.07171119 -0.015835458 1.251719 4283151360
-0.06431023 0.053596169 1.2555637 4283151360
-0.12488753 -0.18584563 1.2443647 4281519360
-0.11749579 -0.11635415 1.2479286 4281519360
-0.11011518 -0.046929177 1.2516323 4281519360
-0.10272662 0.022493465 1.2554436 4283151360
-0.15596937 -0.14752591 1.2480916 4281519360
-0.14857163 -0.078058787 1.2516685 4281519360
-0.14119478 -0.0086560454 1.2554113 4283151360
-0.13380209 0.060781915 1.2592313 4283151360
-0.19441225 -0.17867607 1.2482239 4283151360
-0.18700133 -0.10918839 1.2517766 4281519360
-0.17958543 -0.039748151 1.2554096 4281519360
-0.17220798 0.029666381 1.2591968 4283151360
-0.053655166 -0.019992692 1.2416915 4281519360
-0.046238285 0.04947238 1.2456282 4281519360
-0.038823288 0.11890721 1.24967 4281519360
-0.031404518 0.18829371 1.253823 4281519360
-0.084719658 0.018345388 1.2454545 4281519360
-0.077312127 0.087805614 1.2493989 4281519360
-0.069886722 0.15720679 1.2534909 4279887360
-0.062470965 0.22659923 1.2576945 4281519360
-0.12314267 -0.012769341 1.2453105 4281519360
-0.11572728 0.056697454 1.249248 4281519360
-0.10830883 0.12612653 1.2532946 4281519360
-0.10089791 0.1955267 1.2574847 4281519360
-0.15419051 0.025540186 1.2491665 4281519360
-0.14678399 0.094986618 1.2531536 4281519360
-0.13938282 0.16438302 1.2572598 4281519360
-0.13196294 0.23379646 1.261487 4283151360
-0.19263099 -0.0055855713 1.2491685 4281519360
-0.18521409 0.063867591 1.2531226 4281519360
-0.17778821 0.1332881 1.2571529 4281519360
-0.17038846 0.20268725 1.2612945 4281519360
0.057017855 -0.02120059 1.2391444 4281519360
0.064420119 0.04827204 1.2430481 4281519360
0.071827188 0.11770488 1.247054 4279887360
0.079225086 0.18710394 1.2512304 4279887360
0.025945503 0.017140806 1.2428681 4281519360
0.033341531 0.086609215 1.2468081 4281519360
0.040746152 0.15601373 1.2509103 4279887360
0.048150364 0.22539923 1.2550628 4279887360
-0.012489395 -0.013986268 1.2427219 4281519360
-0.005081858 0.05549613 1.2466712 4281519360
0.0023236279 0.12492308 1.2506467 4279887360
0.0097262217 0.19432107 1.2548032 4279887360
-0.043555263 0.024335932 1.2465932 4281519360
-0.036155734 0.093786299 1.2505376 4279887360
-0.028750055 0.1631818 1.254595 4279887360
-0.021348123 0.23258983 1.2587975 4279887360
-0.081994064 -0.0068106786 1.2465289 4281519360
-0.0745814 0.062661715 1.2504419 4279887360
-0.067169316 0.13208279 1.2544754 4279887360
-0.059775878 0.20149641 1.2586339 4279887360
0.055287868 -0.18741235 1.2386868 4283151360
0.062698781 -0.11795247 1.2424014 4281519360
0.070104696 -0.048523042 1.2462114 4281519360
0.077512525 0.02089685 1.2500622 4281519360
0.02421887 -0.14907475 1.242272 4281519360
0.031614657 -0.079618134 1.2459801 4279887360
0.039022598 -0.010204087 1.2498423 4281519360
0.046429534 0.059216999 1.2537107 4281519360
-0.0141973 -0.18019408 1.2422419 4281519360
-0.0067953453 -0.11072148 1.2458992 4279887360
0.00060211128 -0.041295812 1.2496767 4279887360
0.0079981098 0.028131189 1.2536047 4281519360
-0.045262717 -0.14187354 1.245877 4281519360
-0.037869964 -0.072424427 1.2496222 4279887360
-0.030483784 -0.0030217657 1.2534661 4281519360
-0.02308525 0.066417515 1.2573659 4281519360
-0.083688326 -0.17301327 1.2459576 4283151360
-0.076289572 -0.10354066 1.2496239 4281519360
-0.068890572 -0.034122307 1.2533658 4281519360
-0.061515201 0.035306819 1.2572546 4281519360
-0.017065829 -0.12093209 1.309657 4281519360
-0.0096586961 -0.05148153 1.3134601 4279887360
-0.0022513769 0.017956885 1.3173275 4279887360
0.0051617017 0.087361418 1.3212591 4279887360
-0.048130117 -0.082602866 1.3132827 4279887360
-0.040735461 -0.01314385 1.317095 4278255360
-0.033329986 0.056273345 1.3210264 4279887360
-0.025923178 0.12568295 1.3250282 4279887360
-0.086546585 -0.1137013 1.3131795 4279887360
-0.079146132 -0.044244893 1.3169619 4278255360
-0.071741059 0.025181727 1.3208175 4278255360
-0.064341433 0.09458553 1.324815 4279887360
-0.1176055 -0.075388707 1.3169148 4279887360
-0.11020986 -0.0059499922 1.3207127 4278255360
-0.10281365 0.063458234 1.3246861 4279887360
-0.095407479 0.13286655 1.3286682 4279887360
-0.15603027 -0.10651188 1.3169209 4281519360
-0.14861791 -0.037060231 1.3206892 4279887360
-0.14121687 0.032351535 1.3245867 4279887360
-0.13382077 0.10176415 1.3284994 4279887360
-0.062214792 -0.18502085 1.3097978 4278255360
-0.03794951 -0.11950277 1.3133025 4278255360
-0.013679652 -0.054019239 1.3169286 4279887360
0.010579451 0.011446797 1.3205769 4281519360
-0.082882211 -0.14021163 1.313354 4278255360
-0.058627848 -0.074704118 1.316821 4278255360
-0.03436888 -0.0092313765 1.3204978 4279887360
-0.010106277 0.056240935 1.3241863 4281519360
-0.12777576 -0.16092542 1.3134576 4278255360
-0.10350574 -0.095402949 1.316921 4278255360
-0.079256475 -0.029926185 1.3205069 4278255360
-0.055 0.035552133 1.3242075 4279887360
-0.14845115 -0.11613861 1.3171104 4278255360
-0.12418908 -0.050634008 1.3205773 4278255360
-0.099946782 0.014820367 1.324212 4279887360
-0.075693212 0.080312103 1.3278996 4281519360
-0.19337213 -0.13687292 1.3173735 4279887360
-0.16907416 -0.071350507 1.3207599 4278255360
-0.14481561 -0.0058746287 1.324315 4279887360
-0.12057421 0.059603494 1.3279831 4281519360
0.017693188 -0.011235774 1.309948 4283151360
-0.00023794531 0.056264158 1.3140466 4279887360
-0.018161897 0.12373282 1.3183072 4278255360
-0.036061052 0.19115871 1.3226295 4278255360
-0.025035985 0.013452614 1.3136528 4281519360
-0.042975578 0.080945067 1.3177993 4278255360
-0.06088727 0.14838311 1.3220838 4278255360
-0.078783669 0.21581478 1.3264915 4278255360
-0.04980338 -0.029332194 1.3132585 4281519360
-0.067735955 0.038171716 1.3174025 4279887360
-0.085655592 0.10563561 1.32162 4278255360
-0.10355528 0.17305806 1.3259736 4278255360
-0.092521206 -0.0046690335 1.3170617 4281519360
-0.11044925 0.062817365 1.3212388 4278255360
-0.12835941 0.13024558 1.325541 4278255360
-0.14626284 0.1976797 1.3299322 4278255360
-0.11728583 -0.047469776 1.3168161 4283151360
-0.13520245 0.020020761 1.3209236 4279887360
-0.15311031 0.087478578 1.3251598 4279887360
-0.17102653 0.15491852 1.3295344 4278255360
-0.011409801 -0.10318244 1.2847004 4286415360
-0.0067298305 -0.035458319 1.3016065 4286415360
-0.0020377862 0.032235958 1.3186086 4283151360
0.00265062 0.099885702 1.3356371 4281519360
-0.0439592 -0.067427911 1.2952267 4286415360
-0.039279841 0.00029936951 1.312156 4284783360
-0.034596983 0.067957796 1.3291427 4283151360
-0.029914003 0.13560161 1.3461863 4279887360
-0.081138216 -0.099393748 1.2889017 4284783360
-0.076462306 -0.031661976 1.3058152 4284783360
-0.071772732 0.036033161 1.3227501 4283151360
-0.06708926 0.10367524 1.3398079 4279887360
-0.11368053 -0.0636748 1.2994953 4283151360
-0.10900162 0.0040350086 1.3163902 4283151360
-0.10432572 0.071692966 1.333432 4279887360
-0.099635899 0.13934271 1.3504934 4278255360
-0.1508698 -0.095677473 1.2932922 4283151360
-0.14617057 -0.027949208 1.3101255 4281519360
-0.14148645 0.03973477 1.3271015 4279887360
-0.13681181 0.10738688 1.3441577 4278255360
-0.010059479 -0.10700611 1.3554546 4284783360
-0.0061170501 -0.04004984 1.3356059 4284783360
-0.0021646512 0.026932545 1.3158547 4283151360
0.0017935424 0.093896344 1.2961116 4283151360
-0.042988375 -0.071140178 1.3466226 4284783360
-0.039052021 -0.0041768914 1.3268086 4283151360
-0.035105489 0.062790327 1.3070573 4283151360
-0.031153211 0.12977549 1.287389 4281519360
-0.079812899 -0.10219331 1.35769 4283151360
-0.075873494 -0.035240706 1.3377899 4283151360
-0.071928799 0.031723123 1.31801 4283151360
-0.067976356 0.098691501 1.2983557 4281519360
-0.11272804 -0.066315904 1.3489261 4281519360
-0.10879894 0.00062842492 1.3291082 4281519360
-0.10486063 0.067582861 1.3094147 4279887360
-0.10091463 0.13457264 1.2897635 4278255360
-0.14956351 -0.09735208 1.3601058 4279887360
-0.14561796 -0.030415259 1.3402247 4279887360
-0.14166859 0.036523987 1.3204721 4279887360
-0.13773793 0.10350888 1.3008345 4278255360
-0.018425234 -0.10900128 1.263714 4286415360
-0.013884003 -0.039203107 1.2646893 4284783360
-0.0093176141 0.030588649 1.2657408 4283151360
-0.0047373492 0.10035548 1.2668346 4281519360
-0.050207332 -0.071993008 1.2720252 4284783360
-0.04567321 -0.0021849265 1.2729739 4284783360
-0.041105289 0.067579821 1.274073 4283151360
-0.036521383 0.13734938 1.2752044 4281519360
-0.086468935 -0.10476069 1.2793778 4284783360
-0.081937976 -0.034957856 1.2803438 4283151360
-0.07738243 0.034826238 1.2813809 4283151360
-0.072803989 0.1045859 1.2824863 4281519360
-0.11822817 -0.067764938 1.287764 4283151360
-0.11368951 0.0020147457 1.2887131 4283151360
-0.10913868 0.071770951 1.2898209 4281519360
-0.10455798 0.14154303 1.2909882 4279887360
-0.15447664 -0.10055159 1.2952253 4281519360
-0.14993246 -0.030765282 1.2961422 4281519360
-0.14538147 0.039003689 1.2971858 4279887360
-0.14082323 0.10876401 1.298316 4279887360
-0.015806232 -0.10976075 1.3869872 4284783360
-0.011823542 -0.039980087 1.3895057 4284783360
-0.0078632338 0.029805273 1.3921199 4283151360
-0.0039072745 0.09954498 1.3947657 4281519360
-0.047995374 -0.072657585 1.3810464 4284783360
-0.044021595 -0.0028660074 1.3835337 4284783360
-0.040075671 0.066883087 1.3861928 4283151360
-0.036130622 0.13663715 1.3889352 4281519360
-0.08413209 -0.1053152 1.3725699 4284783360
-0.080154665 -0.035531428 1.3751127 4283151360
-0.076185919 0.034237579 1.3777612 4281519360
-0.072239511 0.10398398 1.3803926 4281519360
-0.11634906 -0.068233408 1.3667755 4283151360
-0.11236414 0.0015397393 1.3692772 4281519360
-0.10841985 0.07128717 1.3719382 4281519360
-0.10447293 0.14103913 1.3746532 4279887360
-0.15250725 -0.10090934 1.3584396 4281519360
-0.1485212 -0.031126276 1.3609346 4281519360
-0.1445386 0.038628649 1.3635657 4279887360
-0.14060287 0.10838066 1.3662575 4279887360
